-0.131482 0.709485 0.343416
0.239882 -0.903740 -0.007106
-0.032270 -0.067784 -0.617614
-0.019678 -0.757889 -0.367567
0.115735 0.703637 0.397977
0.075984 0.725339 -0.418014
0.026699 0.734055 0.118641
-0.164084 0.392449 0.358605
0.265848 0.297433 0.326527
0.072484 -0.311935 -0.432353
0.215614 0.726478 0.049320
-0.240236 0.195440 0.483604
-0.269796 -0.254172 -0.353119
-0.038649 0.676252 -0.506117
0.445822 0.410062 0.021895
-0.224985 0.575752 -0.528857
-0.389436 -0.187678 0.123300
-0.294046 -0.540393 -0.063319
-0.083842 -0.940650 -0.288879
0.365291 -0.262904 0.151313
0.036825 -0.957067 -0.246500
0.170506 -0.384337 -0.323674
-0.305989 0.671282 0.171432
-0.145434 -0.653355 0.307143
-0.112788 0.547266 0.360041
0.253548 0.303072 -0.583259
-0.061338 0.481502 -0.627917
-0.367865 -0.279990 0.163896
0.097458 -0.052235 0.505861
0.336121 0.654878 0.019568
0.336512 0.162080 -0.512463
-0.234463 0.489778 -0.561218
0.344778 -0.382770 0.131056
-0.372777 0.570985 0.147160
0.109494 0.726504 0.153773
-0.494996 0.231629 -0.002805
0.121286 0.737890 0.029360
0.227101 -0.673173 -0.189708
0.089150 0.748217 -0.176555
0.365072 0.506551 0.070889
-0.028245 0.507320 -0.622521
-0.254852 -0.611818 -0.075150
0.329781 0.251985 -0.532102
-0.132128 -0.570972 0.465451
0.443840 0.462728 -0.320914
0.470911 0.021258 0.102762
0.002993 0.539594 0.375920
-0.185962 0.710100 0.070325
0.271908 0.671711 -0.373335
0.120485 -0.724184 -0.351817
-0.253584 -0.888106 -0.086726
-0.459800 0.012385 -0.267103
0.221464 0.036808 0.393933
0.422930 0.151501 0.326612
0.048461 -0.391655 -0.371516
0.137280 -0.085661 -0.582113
0.335276 -0.266716 0.286819
0.072550 0.745194 -0.018468
-0.188363 0.709198 0.164772
0.293019 -0.250373 -0.300964
0.084083 -0.979662 -0.046568
-0.342333 0.567826 -0.424441
-0.375291 0.440911 -0.440265
-0.115560 -0.142886 0.549793
-0.007019 0.546187 -0.608031
-0.079110 -0.973410 0.005165
-0.257710 0.277427 0.406298
0.305630 0.383524 0.245271
-0.036182 -0.330589 -0.414614
0.301142 -0.312886 -0.149392
0.489749 0.404564 -0.034452
0.152829 -0.683313 -0.322481
-0.188597 0.697348 0.292977
0.182178 0.255120 -0.621123
-0.361437 -0.164941 -0.332762
-0.320883 -0.329337 -0.151496
-0.130654 -0.357133 0.505017
-0.403781 0.322416 0.124585
-0.187438 -0.228382 0.426411
-0.191846 0.727544 -0.164074
-0.414373 0.007494 -0.380095
-0.167441 0.708326 0.248456
0.322533 -0.102007 -0.445359
-0.253297 -0.262746 -0.366841
0.220922 -0.302852 0.346078
0.151218 -0.171595 0.520123
-0.084557 0.590947 -0.576707
0.216126 -0.667500 -0.228260
0.016688 -0.953215 -0.263797
0.229230 0.695830 -0.383206
0.389232 0.390712 0.064714
-0.189920 0.237539 -0.620003
-0.278846 0.694754 -0.133697
0.383858 -0.079143 -0.372503
0.462921 0.016552 -0.106434
-0.183142 -0.291409 -0.396248
-0.300727 0.423507 -0.534640
0.426298 0.112798 0.132537
-0.135085 -0.485069 -0.319982
0.178734 0.244879 0.510002
-0.479590 0.389900 -0.168122
-0.270622 -0.566790 -0.064363
-0.334151 0.648601 -0.346098
-0.336688 0.275167 0.306013
-0.322392 -0.069040 -0.482606
0.456893 0.388582 -0.328118
0.037677 0.423806 -0.647679
0.369341 0.163314 -0.483975
-0.022770 0.083254 0.529284
0.225502 -0.489144 -0.184919
0.061510 -0.832027 0.181174
-0.479741 0.366571 0.053739
-0.153118 0.593179 -0.562993
0.159331 0.066454 0.399111
0.290888 0.203209 -0.562317
-0.322802 0.500940 0.171564
-0.040698 -0.010588 -0.628270
-0.349508 -0.224808 0.323613
-0.222770 0.597524 -0.517886
-0.010939 0.561928 0.387650
0.203299 -0.618142 0.136551
0.489915 0.334017 -0.238033
0.200826 -0.246490 -0.444496
-0.409444 0.180731 0.247110
0.138941 -0.158263 0.488181
0.070289 0.734967 0.087209
0.435135 0.219437 -0.392000
0.145149 0.517057 -0.594779
-0.065144 -0.159330 -0.585617
0.336405 -0.303669 -0.115220
-0.335436 0.411455 0.133190
-0.374465 -0.097620 -0.402788
-0.103198 -0.154687 0.591531
0.168098 -0.351668 -0.333442
-0.358604 -0.065745 -0.442397
-0.235821 -0.628036 0.315929
0.347458 -0.496447 0.022055
0.044211 0.362956 0.396236
0.406637 -0.090511 -0.300228
-0.286011 -0.569531 -0.046510
-0.145042 -0.654074 0.359596
0.175815 -0.098921 0.449424
0.313556 0.572401 -0.450520
0.286712 0.670239 -0.341703
-0.345756 0.247492 0.352451
0.216064 -0.937208 0.029415
0.290415 -0.338504 -0.151362
-0.282486 -0.142891 -0.477934
0.488716 0.069302 -0.047944
0.176409 -0.611041 -0.286599
-0.037413 -0.467056 -0.355359
0.096841 -0.075227 0.512931
-0.059384 0.728527 -0.376379
0.203685 -0.583775 -0.232474
-0.022592 -0.960252 -0.187303
-0.174425 0.420440 -0.612968
-0.254536 -0.373344 0.391445
0.099920 0.202759 0.514209
-0.215645 -0.384145 0.410016
-0.153692 0.343535 -0.631367
-0.368139 0.264814 0.222162
0.041701 0.341014 0.411961
0.366727 0.563295 -0.195050
0.384494 -0.272843 0.042101
-0.495936 0.241408 -0.025560
0.405236 -0.013361 0.166378
0.490836 0.045426 0.069569
-0.414292 0.176375 -0.432943
0.240211 -0.070209 -0.533041
-0.495578 0.313209 -0.071235
-0.133263 -0.755180 -0.316543
0.113476 -0.435258 0.489953
-0.053445 0.277666 0.450114
0.340240 0.252862 0.330924
0.206136 -0.168177 0.420586
0.134951 0.748757 -0.125122
-0.452552 -0.138602 -0.116347
0.367602 0.534053 0.076317
0.260463 -0.390809 0.338882
-0.276209 0.531772 0.240714
0.500670 0.272250 0.028687
-0.094354 -0.325463 -0.406156
0.213772 0.670919 0.359673
0.268405 0.565863 -0.505204
-0.103298 -0.179674 0.583863
0.466715 0.006089 -0.190280
0.125676 -0.837373 0.154586
-0.441273 -0.249625 -0.121152
-0.426509 0.555390 0.060774
-0.304410 -0.549216 0.217746
0.116141 -0.084185 -0.592660
-0.252030 -0.767590 -0.114515
0.078191 0.609008 -0.566101
-0.369983 0.318769 0.180963
0.154440 0.529646 0.350667
-0.375357 -0.118325 -0.380600
-0.314673 -0.436190 0.274806
-0.212603 0.046541 0.409973
0.321093 0.444759 -0.505911
-0.061206 0.709820 -0.437288
0.256284 -0.535954 0.285597
0.047805 -0.747451 -0.371273
0.054863 -0.503001 0.478456
0.380454 0.265323 0.199225
-0.295759 -0.222839 -0.378282
-0.148570 0.707762 0.300666
-0.422217 0.189262 -0.414740
-0.399712 -0.116090 0.131481
0.230726 -0.464251 0.367406
-0.283295 -0.214518 -0.425852
-0.457857 0.217963 -0.320984
-0.255858 -0.081621 -0.541670
0.260524 -0.244704 -0.381179
0.467256 0.041422 -0.159605
0.093057 0.743864 -0.283872
0.259268 0.727034 -0.033878
0.023294 0.136323 0.510333
0.138710 -0.286048 0.456912
-0.109825 0.504160 0.332457
-0.460731 -0.061524 -0.112831
-0.134562 -0.964093 -0.041578
-0.237360 -0.211412 0.400814
-0.471625 0.015429 -0.167946
0.086619 0.223729 0.512542
-0.478356 0.409836 -0.136431
-0.031843 0.149193 0.489093
0.175448 -0.139189 -0.541108
0.332163 -0.173802 0.334894
0.270779 -0.136411 -0.480325
0.447438 0.334664 -0.354502
0.077482 -0.618192 0.463843
0.300797 -0.390140 0.266106
-0.397857 0.614095 -0.248519
-0.485463 0.248065 0.056932
0.158099 0.585224 0.376807
0.403715 0.100607 -0.423863
0.111145 -0.343815 0.471345
0.354497 -0.306493 -0.083022
0.493139 0.329012 0.016230
-0.419342 0.454292 0.087138
0.460442 0.240431 0.093214
-0.176674 -0.010211 0.406458
-0.389132 0.341249 0.126269
-0.014863 -0.820938 0.185423
-0.364473 -0.182256 0.258359
-0.127634 0.115706 -0.640721
0.477027 0.127509 0.096782
0.227258 0.745343 -0.156028
0.486740 0.278332 0.052306
0.178225 0.744930 -0.055388
-0.189040 -0.506478 -0.269908
0.452001 0.461520 -0.036661
-0.139876 0.674957 -0.493591
0.031451 -0.934241 -0.345873
0.129505 0.720664 -0.416186
-0.385538 -0.378308 -0.057983
-0.414328 -0.054655 0.094226
-0.025882 -0.543661 -0.343869
0.396753 -0.278396 -0.068423
0.098081 0.687610 0.406499
-0.146374 0.725699 -0.058815
0.107973 0.716309 0.300445
-0.192064 -0.132968 0.466750
0.213034 0.548025 0.333963
0.157543 -0.085139 0.455567
-0.111221 -0.798941 -0.344906
0.043867 -0.295008 -0.465999
-0.085591 0.275028 0.443785
-0.061986 -0.657989 0.230334
-0.256219 -0.621106 -0.048788
-0.228091 0.392195 0.322317
-0.060409 -0.143141 0.647295
0.199433 0.672639 -0.453616
0.017970 0.740955 -0.070156
-0.503204 0.170315 -0.070128
-0.078852 -0.558388 0.489413
-0.483198 -0.070388 -0.238914
0.229352 0.586270 -0.522187
-0.435377 0.230745 -0.376864
-0.053163 -0.092358 -0.610295
0.007222 0.407529 -0.650390
-0.312319 0.660473 -0.347703
-0.189902 -0.752424 0.104464
-0.321769 0.225851 0.415368
-0.178910 0.685261 0.352015
0.130280 -0.200256 0.491594
-0.334162 0.465681 -0.488154
-0.080372 -0.945551 -0.263614
0.044257 0.676696 -0.506530
0.192897 -0.856011 -0.317989
0.075056 0.077267 -0.636280
-0.454167 0.012786 0.048648
0.028081 -0.248368 0.566483
-0.360841 0.199904 0.386264
0.055952 -0.933363 -0.346577
-0.082277 -0.213525 -0.554953
0.331820 -0.141638 0.346704
0.218607 -0.528816 0.378992
-0.065764 -0.538902 -0.337825
-0.047753 0.739609 -0.130813
0.043757 0.071418 -0.639558
-0.129263 0.292406 0.414628
0.021000 0.719347 0.293184
-0.040459 -0.382575 0.536317
-0.193022 0.658294 0.366704
0.225489 -0.659367 0.013330
0.048812 -0.367200 0.516219
0.240813 -0.673268 -0.074345
0.373138 0.565727 -0.279760
0.337653 -0.246463 -0.189855
-0.025403 0.251358 0.473720
0.466247 0.041367 -0.098684
-0.091105 -0.310951 -0.433209
-0.231120 -0.707167 0.043963
-0.296653 -0.593339 0.175928
-0.178624 0.673735 -0.458104
0.406847 -0.276111 -0.171991
-0.042437 -0.277215 -0.494475
0.175715 -0.804902 0.117491
0.437144 0.095653 -0.363843
0.021921 0.718461 0.316768
0.303556 -0.528023 0.157917
0.039737 -0.661568 0.411225
-0.412361 0.475279 0.081641
-0.120123 -0.656140 0.358744
-0.420236 0.060045 0.126315
0.448843 0.501071 -0.187033
-0.323542 -0.153112 0.376053
-0.362566 -0.415931 0.150595
-0.350698 0.649781 0.115230
-0.443023 -0.240348 -0.216835
0.029248 0.742127 -0.093942
0.237874 -0.240021 0.361755
-0.246832 -0.577540 -0.130643
0.038133 0.702003 0.390572
0.511168 0.170964 -0.134905
0.021332 -0.745484 0.187560
-0.030773 -0.413649 -0.369851
-0.245570 -0.407504 -0.247910
0.503052 0.119869 -0.096281
0.135780 -0.243978 0.443593
-0.229356 -0.403723 -0.271118
-0.445689 0.195024 -0.352445
0.412500 0.064273 0.148768
0.186122 -0.890392 -0.323088
0.129845 -0.048174 0.461502
0.079554 -0.932528 -0.343650
-0.111271 0.625939 0.398120
0.427156 0.303000 -0.395352
-0.238265 0.055877 0.398156
0.135286 0.117093 -0.625481
-0.347113 0.221495 -0.528327
-0.058634 -0.309552 0.528353
-0.442320 -0.139050 -0.090032
-0.044286 0.261203 0.464350
-0.013642 -0.147370 -0.588884
-0.217357 -0.866238 0.070534
0.154256 -0.197791 0.419415
-0.139171 -0.932150 -0.286627
0.184170 -0.663089 -0.287049
-0.490093 0.265099 -0.178330
0.123888 0.426058 -0.635482
0.240827 0.145927 0.443989
0.280977 -0.113103 -0.481372
-0.190200 -0.701270 -0.264291
0.477595 -0.016585 0.046909
0.237969 -0.645288 -0.113265
0.005818 -0.947171 -0.298726
-0.106190 0.724287 0.200488
0.129494 0.067187 0.401524
-0.192146 -0.775877 -0.273623
0.517908 0.239808 -0.099345
-0.235282 0.456460 0.261414
-0.060372 -0.824559 0.176180
-0.293713 0.446709 -0.535883
0.233916 0.720800 0.028911
-0.205148 0.264784 0.459250
0.330995 0.588657 0.252616
0.173289 0.672863 -0.474353
0.097932 -0.090964 0.552818
-0.284720 0.412238 -0.552539
0.322981 0.674487 0.068184
-0.242997 -0.145061 0.439499
0.284899 0.623819 -0.418445
-0.135699 0.734577 -0.133573
0.250181 -0.557824 0.285315
-0.287658 0.531924 -0.511897
0.060103 0.431822 -0.643524
0.451640 -0.008187 -0.029883
-0.490383 0.235061 0.036278
-0.253843 -0.866196 -0.036684
0.044245 0.687448 0.407524
0.494378 0.040784 0.012778
-0.389664 -0.289219 0.089313
-0.321400 -0.373264 0.295088
0.147614 -0.644308 0.202510
0.305890 -0.382557 0.242545
0.098646 0.305029 0.415819
-0.471773 0.068659 -0.016896
-0.028146 -0.437508 -0.363885
-0.005925 0.744153 -0.147690
0.214733 0.144911 0.442969
-0.300719 -0.496865 0.281712
-0.199659 -0.393748 0.424422
0.412602 0.274281 -0.419477
-0.400481 0.604494 0.062647
-0.399345 -0.115549 -0.295336
0.491957 0.382471 -0.024632
0.400977 -0.146998 0.082173
0.254464 -0.523511 0.304761
-0.316041 0.672642 -0.112230
-0.488583 0.413189 -0.066822
-0.278706 0.175962 -0.579643
0.498407 0.145161 -0.187422
0.303603 -0.366310 -0.109559
0.408623 0.177111 0.250292
0.378890 0.361474 -0.461017
0.013027 0.224309 -0.659488
-0.386713 -0.457358 0.046613
-0.198573 0.723807 -0.134310
-0.269073 0.549233 0.261884
-0.289156 0.697345 -0.218199
0.210931 -0.706809 -0.253681
-0.066423 0.446917 -0.632916
0.032388 -0.484703 -0.348793
-0.192717 -0.548054 0.439204
0.229238 0.303229 0.349446
0.017053 0.292691 -0.660387
0.126713 -0.796449 -0.353918
0.511580 0.149488 -0.098808
0.284084 -0.144306 0.389043
0.257781 -0.502459 0.313621
-0.222396 -0.140129 0.451865
-0.275732 0.665494 -0.384227
0.081778 0.625634 0.410040
0.221938 -0.256441 0.372246
-0.368046 0.365684 -0.479229
0.027751 0.653854 -0.532926
0.376121 -0.299715 -0.090207
-0.475449 0.438477 -0.021761
0.243973 0.659731 -0.427754
0.069069 -0.119094 0.655165
0.132292 0.089402 -0.623723
0.123839 -0.979002 -0.078387
-0.421699 0.037110 0.115702
-0.347725 -0.275200 0.246074
0.032738 -0.445722 0.516165
0.424083 -0.262855 -0.180980
-0.339671 0.262405 0.333414
-0.167509 -0.908378 0.126112
0.269486 0.287112 -0.575300
-0.241890 0.699154 -0.335131
-0.111232 0.145348 0.453000
-0.336653 0.589965 -0.418392
-0.190377 -0.859762 -0.296113
0.506556 0.304896 -0.182666
0.284218 0.703681 0.023523
-0.160525 0.731121 -0.219216
0.198040 0.707905 0.250623
-0.092206 -0.627241 0.472893
0.032161 0.663779 0.416753
0.231746 -0.376479 -0.250836
-0.383165 -0.181394 0.149497
-0.243972 -0.598556 -0.138769
-0.252760 0.266663 0.428651
0.115229 0.052419 0.411781
0.411964 -0.115359 0.041345
-0.364016 -0.089328 0.274176
-0.236313 -0.302401 0.381482
-0.131202 -0.703399 0.147912
-0.335911 0.664154 -0.197961
0.347494 0.213740 0.426093
0.125885 -0.660085 0.330867
-0.374929 0.162079 0.372444
0.372720 0.110131 -0.468658
0.119082 -0.217801 -0.520608
0.107987 -0.368163 0.490057
-0.365991 0.549218 0.145827
0.364164 0.556432 -0.378885
-0.186099 -0.834671 -0.294375
0.233086 -0.517463 0.364728
0.396919 0.303895 0.138148
-0.372990 -0.412568 -0.059830
0.359764 0.576172 -0.212576
0.150015 0.243581 0.515894
-0.404807 0.556264 0.106688
-0.257823 0.252363 0.445509
-0.148575 0.172694 -0.636313
-0.350396 0.036000 0.229972
0.283967 -0.460889 0.254736
0.127332 -0.310161 -0.405276
0.007655 0.192434 0.496974
-0.033024 0.274975 -0.663270
-0.105149 0.711913 0.363292
0.243563 -0.690520 -0.089556
-0.060502 0.738532 -0.109987
0.484711 0.249275 -0.273877
-0.294086 -0.439295 0.348209
0.514881 0.157735 -0.073756
-0.411776 -0.082087 0.087258
0.465413 0.067347 -0.268829
0.254474 0.185657 -0.583794
0.087004 -0.630982 -0.348928
-0.402524 0.204867 -0.453738
0.369873 0.193482 0.414035
-0.015222 -0.325066 -0.424529
-0.242863 -0.928032 -0.069736
-0.302033 0.019879 0.271101
-0.450265 0.527592 -0.034507
-0.244212 -0.519901 0.418013
-0.479887 0.412684 0.020515
-0.162661 0.673476 0.375947
0.045503 -0.131783 0.694479
-0.238540 0.089511 -0.599738
-0.033154 0.629073 0.411539
-0.057525 -0.907510 -0.373531
-0.207000 0.354006 0.358324
-0.012533 0.726486 -0.401960
-0.478863 0.199918 -0.238418
0.130368 -0.863398 0.149311
0.447479 0.020686 -0.277221
0.095162 0.376821 -0.645238
0.356822 0.237579 0.274847
-0.346094 0.011052 -0.496323
-0.062489 -0.085266 0.569625
0.326611 0.620018 0.240090
-0.499523 0.284937 -0.075859
0.176302 -0.020983 0.394295
0.063950 0.746648 -0.129725
-0.066691 0.197180 -0.660913
0.312723 0.093342 0.360925
-0.078302 0.572882 -0.589268
-0.328315 0.011920 -0.515417
0.462825 0.063312 -0.103831
-0.420949 0.456494 -0.350502
-0.359398 0.137907 -0.514047
0.123408 0.726262 0.124478
-0.458525 0.241178 -0.313625
-0.348640 0.465988 -0.470530
-0.359381 0.563248 -0.398969
0.154788 -0.852963 0.133097
-0.253747 -0.114191 0.430636
0.148808 -0.004025 0.407329
-0.248549 -0.228486 0.389071
0.440497 -0.102990 -0.171189
0.017061 -0.958085 -0.232493
-0.009319 0.628148 0.413620
-0.326384 0.116051 -0.542674
-0.182859 -0.068610 0.448014
0.344508 -0.373660 -0.064335
0.416612 0.171041 0.274929
0.181555 -0.586123 -0.277477
0.054759 0.740366 -0.325726
-0.325288 -0.334418 -0.129553
0.321637 0.673796 0.008005
0.460883 0.365874 -0.319658
0.270322 0.315515 -0.569818
-0.234808 -0.541636 0.420818
-0.483627 0.205963 0.069642
0.358015 0.413772 -0.475152
-0.169089 0.567004 -0.569044
0.260210 -0.214841 0.373859
0.484064 0.433333 -0.170133
0.120181 -0.239542 -0.506339
-0.432864 0.509188 0.038430
0.332586 0.658503 -0.005798
0.123736 -0.665534 0.165659
-0.450292 0.527166 -0.063984
0.285958 0.411650 0.244718
-0.385121 -0.114172 -0.348723
-0.415174 0.590818 0.027467
-0.322627 0.564976 -0.453839
0.291163 0.283064 -0.565661
0.380396 -0.071638 0.280144
-0.266114 -0.506476 -0.129316
-0.255963 -0.739164 -0.046006
-0.294089 -0.525989 0.281723
-0.450685 0.027708 -0.043506
-0.237196 0.406688 0.304918
0.490814 0.375070 -0.208550
-0.334617 0.401529 0.156014
0.451048 0.002535 -0.051774
-0.404946 0.610434 -0.042996
0.255293 0.135936 0.428960
-0.485470 0.091835 0.002619
-0.296427 0.656231 -0.378527
-0.226411 -0.188807 0.424180
-0.007790 -0.335997 -0.405666
-0.281978 0.567841 0.260754
0.168038 -0.783343 0.126281
0.201107 -0.254883 0.385559
-0.236062 -0.644233 0.030900
0.272584 -0.189279 -0.443127
-0.425864 -0.021374 -0.319011
0.504802 0.358225 -0.158028
-0.032212 0.459548 0.340399
0.314946 -0.250051 -0.193703
-0.259612 -0.618467 0.207476
-0.072988 -0.875072 0.171490
0.110497 -0.169075 0.639769
-0.484538 -0.009449 -0.218008
-0.140784 -0.654239 0.337359
-0.185109 0.484429 0.292032
0.209396 0.453532 -0.593472
-0.189624 0.260031 0.477769
0.002153 -0.643183 -0.349708
-0.213854 -0.721343 0.073108
0.129737 0.267679 0.465575
0.223993 -0.221048 0.383829
0.440642 -0.047155 -0.268240
-0.388255 0.615044 0.094427
0.413046 0.121864 0.175272
0.254815 -0.590149 0.056608
0.309899 -0.363250 0.256202
-0.378632 0.050957 0.235432
0.393562 0.547417 -0.189451
-0.086603 -0.910234 -0.359525
-0.304079 0.093212 -0.558944
-0.113490 0.432550 0.349946
-0.021280 0.015457 0.591820
-0.125114 0.732101 -0.087133
0.297965 0.697233 -0.225887
0.193358 0.729946 0.054549
0.438564 0.023242 -0.322392
0.263621 -0.381490 -0.172954
0.061814 0.705555 0.391336
-0.293728 -0.559477 0.251135
-0.400625 0.063137 -0.433848
0.386219 0.450905 -0.436509
0.391618 0.472731 -0.422191
-0.399309 -0.012968 0.174014
-0.108102 -0.638910 0.456450
-0.080373 -0.092469 0.553347
0.328293 -0.511158 0.092209
0.240515 -0.780041 -0.183571
0.099225 0.735276 -0.342332
0.187626 -0.378507 0.391751
0.047866 -0.056308 0.647130
0.200245 0.749427 -0.151432
-0.065509 0.739598 -0.151236
-0.116255 0.216209 0.516316
0.234239 -0.677425 -0.158114
0.249519 -0.912759 -0.065717
0.339850 -0.291159 -0.147399
0.199030 -0.518607 -0.244967
0.222993 0.324480 0.343084
0.300558 0.593588 -0.434785
0.152954 -0.967234 0.081702
-0.497018 0.248956 -0.048382
0.198590 -0.326983 -0.321007
-0.030168 -0.840516 0.182703
-0.285946 0.472811 -0.534085
0.498733 0.146646 0.066025
0.209119 -0.297101 -0.346263
0.438819 -0.210804 -0.175523
0.005245 -0.615626 -0.348644
0.056661 0.726993 -0.403198
-0.206198 -0.566686 0.428754
0.067965 0.299622 -0.649248
0.024434 0.257976 0.472033
0.048311 -0.067117 -0.611916
-0.361869 -0.466434 -0.054598
-0.204303 0.347076 -0.609643
0.030360 -0.638878 0.470820
0.131409 -0.941679 -0.294660
0.196137 -0.406433 0.377162
0.236553 -0.569618 -0.086942
0.251813 0.704860 0.108660
0.148736 -0.958890 -0.238577
-0.039922 -0.797326 0.181914
0.334081 0.662244 -0.068665
0.024444 -0.335733 -0.402250
-0.006528 -0.982712 0.050830
-0.342687 -0.434388 0.191409
0.515086 0.221351 -0.078853
0.230118 -0.770544 0.029150
0.197184 0.320999 0.359417
-0.349979 0.366150 0.175688
-0.090784 0.729141 0.041219
0.128633 0.719783 0.309962
-0.194740 0.145754 0.440261
0.230381 0.117738 -0.588427
-0.421938 0.226835 -0.410779
-0.146449 0.097813 -0.627977
-0.087601 -0.774002 -0.350110
0.229446 -0.614969 -0.140702
0.314740 -0.552999 0.030245
0.331487 0.587714 -0.382888
0.100918 -0.022823 -0.612964
0.100646 -0.651956 -0.348306
0.131226 -0.216744 0.437408
-0.302112 -0.273372 -0.227763
-0.290345 0.675849 -0.017280
-0.330385 0.560618 0.208599
0.245431 -0.556460 -0.055985
-0.117331 -0.325257 -0.399336
0.390316 0.267730 -0.457643
0.084326 0.434847 -0.635212
-0.352032 0.647655 -0.248266
0.357989 -0.400756 0.068204
0.088302 -0.351877 0.487349
-0.338200 0.516033 0.160999
-0.024495 -0.856457 -0.380155
0.039734 -0.430516 0.533772
0.027736 0.746977 -0.263529
-0.279943 -0.605743 0.090516
0.056454 0.740241 0.068508
-0.202382 -0.640103 0.195308
0.012583 -0.139681 0.706156
0.204862 -0.936117 0.049407
0.015094 -0.355080 0.518401
-0.402927 0.038985 0.179299
-0.317001 -0.075449 0.333426
0.026798 -0.972571 -0.088753
-0.461048 0.063497 0.072264
-0.133252 -0.547001 0.469271
-0.428756 0.042432 -0.360877
-0.348247 -0.152276 0.339461
-0.477948 0.226009 -0.239224
-0.284103 -0.564162 0.282000
-0.301426 0.595078 -0.460641
0.388526 -0.109860 0.200430
-0.096139 -0.255903 -0.508823
0.121385 -0.698914 -0.347674
-0.280310 -0.227918 -0.403719
0.027312 -0.055641 0.658451
0.361875 0.119902 -0.486867
0.181428 -0.413665 0.395361
0.252891 -0.463978 -0.125409
0.016252 0.148009 -0.652231
-0.450418 -0.088734 -0.060677
-0.377261 0.468480 -0.429546
0.107169 -0.104492 0.571311
0.120712 -0.186645 0.620305
0.250280 -0.892137 -0.181122
0.409656 -0.268893 -0.087452
0.180641 0.121988 0.406074
0.244143 0.695012 0.248512
0.477274 -0.008843 0.023945
0.361216 0.545375 0.152511
-0.005407 0.682196 -0.500453
0.183310 -0.151392 0.438556
-0.169645 -0.078953 0.469212
-0.018541 -0.052855 0.641375
0.096494 -0.875594 0.164469
-0.131142 0.153077 0.461343
-0.041873 0.732716 0.095112
-0.177501 0.728923 -0.247250
0.234111 0.304567 -0.596254
0.045131 0.095355 -0.642754
0.206044 0.339620 0.346053
0.351990 -0.119834 -0.396712
-0.006884 -0.248384 0.616946
0.356561 0.060456 -0.479255
-0.425130 -0.270561 -0.191509
-0.232432 0.698134 0.019536
0.232205 -0.611374 0.287229
-0.418881 -0.043820 -0.324195
0.124886 0.019919 0.420309
0.014735 0.423007 0.359547
0.476124 0.114061 -0.158362
-0.295408 -0.251354 -0.285287
-0.228433 0.325958 0.357051
0.015407 -0.196754 -0.558662
0.234021 -0.618945 -0.117691
0.255149 -0.574304 -0.000483
-0.102926 -0.122181 0.560193
-0.396198 -0.278536 0.067945
-0.111383 0.550476 -0.594519
-0.271106 0.203262 -0.587300
0.374428 0.551780 -0.358385
-0.400634 -0.227832 0.068874
-0.032724 0.704650 -0.458571
-0.044319 0.722217 0.255925
-0.250153 -0.698804 -0.100352
-0.165530 -0.935563 -0.245586
-0.302188 -0.451651 0.308583
0.313300 0.423353 -0.516216
0.333397 -0.509868 -0.022918
0.199119 -0.213351 0.395851
0.244372 -0.456313 -0.150523
0.010399 -0.232276 0.711440
-0.113313 0.735462 -0.287373
-0.430061 -0.170341 -0.012035
0.364007 -0.380540 0.058348
-0.191058 0.536623 -0.568109
0.147850 0.218431 0.519092
0.229065 -0.026305 -0.557508
-0.223383 0.698650 0.129348
0.391951 -0.086780 0.211925
0.499902 0.089098 -0.042539
0.288563 0.656483 -0.366597
-0.151456 -0.062023 0.467427
0.191394 -0.775852 -0.295154
-0.475586 -0.064942 -0.213669
-0.447795 0.459195 0.049634
-0.190220 -0.260258 -0.446032
-0.457442 0.042366 -0.262939
-0.309378 0.450052 0.154504
-0.418135 -0.083146 0.057523
-0.164596 -0.782425 -0.298043
-0.140617 -0.539051 -0.306436
0.174274 0.282739 0.426125
-0.248348 -0.755229 0.007049
0.371291 0.140394 -0.478293
0.228176 0.409374 0.297198
-0.117280 -0.512796 -0.322640
-0.458330 0.316221 -0.301937
0.307275 -0.476262 -0.057252
0.280515 -0.272504 0.332122
0.123853 0.095332 0.407164
0.103195 -0.032215 0.491612
-0.431384 0.535632 -0.249370
-0.217881 0.086870 -0.611756
-0.143046 0.566964 -0.580077
-0.188054 -0.659563 -0.261197
0.099730 0.629402 -0.548002
-0.040776 -0.232673 0.597282
-0.043141 -0.935713 -0.332894
0.176913 -0.908863 0.102235
0.190104 -0.547915 0.400551
0.150082 -0.721097 0.143770
-0.095490 0.006555 -0.629959
-0.032821 -0.970282 -0.061210
0.450799 0.373946 -0.348996
0.367533 0.516153 -0.427507
0.092935 0.664306 0.410930
-0.359028 -0.110763 -0.414393
-0.431904 0.570662 -0.212818
0.196372 -0.836246 -0.307300
0.143109 0.467123 0.311448
-0.271741 0.701511 -0.157585
-0.445297 -0.096866 -0.038621
-0.236171 -0.234000 -0.451061
0.484551 0.276878 -0.277186
-0.459059 -0.214736 -0.224612
0.346783 -0.484285 -0.025580
-0.470653 0.459959 -0.143585
0.097282 -0.737720 0.172407
-0.118380 0.452461 0.337177
0.017241 -0.961258 -0.207794
0.255386 0.727461 -0.211631
-0.451940 0.105617 -0.322417
-0.294231 -0.488763 0.312227
0.143187 -0.701396 -0.332931
-0.155376 -0.951888 -0.157913
0.336335 0.410242 0.176608
-0.418245 0.015682 0.123751
0.332918 0.662066 -0.044845
0.395029 -0.179062 0.075474
-0.110517 -0.704774 -0.321155
-0.028562 -0.675645 0.184512
-0.461502 0.099340 -0.208571
-0.280945 0.243498 -0.581309
-0.495502 0.320681 -0.048805
-0.105475 -0.728933 -0.329815
-0.216659 -0.052520 -0.575891
0.387210 -0.059554 0.260929
0.354490 0.328456 0.215975
-0.436465 -0.154792 -0.035305
0.108383 -0.320991 -0.399050
0.229570 -0.279100 -0.358280
0.504432 0.094430 0.042367
0.319692 -0.526429 0.109783
-0.214486 0.273091 0.433260
-0.142199 0.554070 0.354403
-0.301669 -0.015027 -0.532318
-0.436931 -0.038769 -0.288786
0.422896 0.157784 0.253713
-0.329227 0.466112 0.123764
-0.126973 0.447455 -0.619509
-0.233653 0.431161 -0.580831
-0.373938 -0.158358 -0.291068
-0.392484 -0.341232 0.066244
0.261772 -0.432195 -0.137413
-0.353988 0.529413 0.147726
0.149936 0.120699 0.409944
-0.285345 0.472158 0.200376
-0.471313 0.166902 -0.258146
-0.001223 0.243449 -0.662589
-0.270574 0.433109 -0.559675
0.320132 0.265504 0.325129
-0.232586 -0.692362 -0.190290
-0.214080 -0.113433 -0.554411
-0.415285 0.546902 0.086180
0.349699 0.512921 -0.459179
0.016646 -0.660362 -0.353677
-0.138170 0.724718 0.011571
0.124373 0.750334 -0.173674
-0.004099 0.741044 -0.031552
-0.430411 0.585302 -0.069943
-0.305165 -0.592977 0.145992
-0.403359 -0.374741 0.020421
0.377234 0.478649 -0.440328
0.227134 0.497962 0.286504
-0.346077 0.445081 -0.479308
-0.401659 -0.404374 0.019989
0.291855 -0.385093 -0.120589
-0.443871 -0.013015 0.043965
-0.059494 -0.562367 -0.337670
0.229835 0.017350 0.384949
-0.128557 0.490126 0.325051
0.056789 0.709065 -0.460817
0.072309 -0.021313 0.576814
-0.345677 -0.108590 -0.436115
0.373762 0.406237 0.071324
0.161860 -0.623079 -0.305242
0.181498 0.059720 0.399101
0.236105 -0.600450 0.071342
-0.191700 -0.106871 0.467292
-0.333152 0.659730 -0.322375
-0.017983 -0.657982 0.345584
0.095156 0.248212 0.514374
-0.483956 0.033671 -0.173440
0.484344 0.243520 0.070893
0.300392 0.225756 -0.559140
0.074804 0.681449 -0.498230
0.271647 0.273143 0.385738
-0.491887 0.118297 -0.044524
-0.250054 0.365670 -0.588251
-0.060338 -0.479118 -0.350217
-0.274220 -0.484839 -0.129348
0.500178 0.069084 0.011159
0.233331 0.493901 -0.568041
-0.183098 -0.642672 0.390536
0.314426 0.266724 0.361848
0.063111 -0.059900 0.628899
-0.365982 -0.330472 0.162344
-0.468737 0.038460 -0.118956
0.256443 0.677329 0.302644
0.128661 -0.915764 -0.349239
-0.121946 -0.816839 0.154246
-0.259768 0.061604 0.380822
-0.328017 -0.235637 -0.225397
-0.308193 -0.457271 0.282716
-0.413345 -0.102111 0.069498
-0.298184 0.623241 0.272863
-0.037744 -0.622944 0.484125
0.371430 0.257864 0.220678
0.266446 0.423884 0.255167
-0.097411 -0.656936 0.347884
-0.188293 -0.753598 -0.272130
0.389130 -0.222070 -0.214460
0.189189 0.355203 0.346114
-0.339186 0.648005 0.000661
0.361903 0.363689 -0.481761
0.113553 -0.975380 -0.113886
-0.329099 -0.199015 0.367652
0.306847 0.352668 0.262960
0.024083 -0.657826 0.221611
0.211652 0.569413 0.348920
0.125251 0.716012 0.378661
-0.103349 -0.656772 0.277126
0.039508 0.276718 0.455341
0.115281 -0.222804 0.485642
0.464672 -0.015603 -0.214646
-0.109468 0.184294 0.502597
0.111208 -0.258136 -0.494601
-0.080666 0.725419 0.198474
-0.036475 0.085315 -0.646999
0.080023 0.347821 0.395800
0.064726 -0.639064 0.460616
0.193640 -0.800715 -0.296233
0.215525 0.576081 -0.537327
-0.090259 -0.693187 -0.330402
-0.198065 0.161991 0.465660
-0.026230 -0.265671 -0.506972
-0.410067 0.092199 0.254215
0.151526 0.722519 0.125256
-0.183133 -0.167312 -0.546635
0.504327 0.222810 0.043309
-0.315875 -0.534151 0.201845
0.066664 0.645076 0.413960
-0.487965 0.101828 -0.020996
0.437647 0.354105 -0.376212
-0.292392 0.688216 -0.101466
-0.322791 0.609350 -0.412473
-0.238668 -0.778362 0.034221
0.510019 0.177279 -0.161208
-0.211923 -0.633165 0.151689
0.417136 0.088211 0.202028
0.150060 0.295213 -0.634326
-0.176209 0.011304 0.414203
0.097254 -0.343709 -0.379243
-0.178255 -0.612460 -0.270900
-0.053863 -0.968130 -0.069484
-0.014477 -0.943985 -0.310316
0.247013 -0.854225 -0.210340
-0.055356 -0.214621 0.637879
0.245037 -0.729697 -0.041088
0.126692 -0.000635 0.437914
0.346678 0.356190 -0.501779
-0.179782 -0.404675 -0.321477
-0.030003 0.457924 -0.634396
-0.032451 -0.132872 0.672237
-0.134239 -0.042550 0.461556
0.282117 -0.540932 -0.036767
-0.312098 -0.355873 -0.140074
-0.270150 -0.608393 0.062069
-0.128912 -0.643741 0.439382
0.396404 -0.199339 0.031281
-0.072231 0.048734 0.449107
0.125555 -0.384465 0.498359
0.068367 0.087666 0.499690
-0.401769 0.159208 0.327658
0.405718 0.539999 -0.161306
0.178300 0.390752 0.335053
-0.008789 0.264751 0.466013
-0.347554 0.269894 0.274607
-0.282717 -0.581643 0.252201
0.095607 -0.277163 -0.477456
-0.225021 0.408251 -0.590372
-0.388978 -0.423219 -0.046927
0.052266 0.320355 -0.651907
0.365647 0.517488 0.042002
0.020758 0.532415 -0.610312
0.166657 0.503499 0.326182
-0.139501 -0.654148 0.281327
-0.143868 -0.254347 -0.489542
-0.336373 0.201661 -0.539962
0.049942 0.537139 -0.610211
-0.204461 -0.275309 -0.396694
0.080079 0.528702 -0.610798
0.239527 -0.261822 -0.378823
0.440235 -0.045369 -0.007427
-0.360705 -0.131834 0.294968
0.129314 0.463326 -0.620306
0.144995 -0.143190 0.463122
0.336124 -0.314781 0.202418
0.171760 0.223138 -0.623102
-0.498672 0.254392 -0.136320
0.201322 0.470583 0.282653
-0.134095 0.369225 0.379969
-0.062970 -0.972914 -0.011661
0.243302 -0.849514 -0.010789
-0.017768 -0.245594 0.593548
0.246578 -0.032503 -0.542356
0.050239 -0.982335 0.001010
0.512636 0.125907 -0.006175
0.224188 -0.602066 -0.160219
-0.487266 0.375343 -0.135249
0.106600 0.744935 -0.064243
0.057389 0.744932 -0.040082
-0.164376 -0.711290 0.124146
-0.463624 0.112335 -0.229509
-0.086196 -0.657244 0.237965
0.337899 0.644842 0.096467
-0.145300 0.722080 0.036854
0.331554 -0.485295 0.108381
-0.120181 0.308861 -0.642566
-0.083524 0.675113 0.408849
-0.381242 0.237187 -0.486709
-0.363246 -0.196106 0.240485
-0.395130 -0.390478 0.045451
-0.243113 -0.622534 -0.143319
0.448191 0.001903 -0.254845
0.063633 0.227424 -0.650277
-0.401333 -0.078656 0.152018
-0.423263 -0.268940 -0.059071
-0.088829 -0.428094 0.533405
-0.431411 0.433392 0.088686
0.334698 0.648717 -0.163409
-0.134425 -0.522400 0.468662
-0.397764 0.622393 -0.061147
0.098906 -0.610093 0.454733
0.127588 -0.130495 0.574720
0.284365 -0.010266 0.345208
-0.367377 -0.191840 0.218205
0.277628 -0.361905 -0.160806
-0.163315 0.541237 -0.582221
0.046676 -0.586729 -0.350085
-0.337368 -0.564388 -0.017651
-0.163100 0.061437 0.426480
0.054785 -0.972339 -0.117627
0.301789 0.016284 -0.525516
0.339002 0.653789 0.073551
-0.048172 -0.951584 -0.240042
-0.060874 -0.597444 0.490105
-0.157051 -0.363108 -0.348229
0.102286 0.745934 -0.025876
0.074546 -0.690577 0.179694
0.094111 -0.166540 0.662817
0.180815 0.295082 0.389967
-0.349963 -0.015939 -0.481739
0.344864 0.591201 0.222622
0.311712 0.671101 0.189404
-0.415187 -0.170356 0.035500
0.402837 0.494018 -0.389467
0.353381 0.441011 -0.474667
-0.269365 0.043505 0.367984
-0.242541 -0.736760 0.023849
0.320891 0.683114 -0.126029
-0.268115 0.673450 0.238572
-0.267782 -0.352032 -0.238841
-0.211005 0.685695 0.310877
-0.330855 -0.288831 0.343906
0.331103 -0.152939 -0.403856
-0.330431 -0.213226 -0.294624
0.236448 -0.640401 -0.059616
-0.266072 -0.563294 0.355004
-0.220035 -0.559407 -0.214792
-0.136765 -0.466169 0.466652
-0.284017 0.353374 -0.562888
0.366469 0.240963 -0.486528
0.176032 0.215837 0.517969
0.510199 0.313087 -0.131701
0.230920 0.417148 -0.587330
-0.312644 -0.565894 -0.035731
0.321783 0.609485 0.259925
-0.201341 -0.289443 -0.378234
-0.218209 -0.633407 0.176701
0.046304 -0.904366 -0.367441
-0.322059 0.340106 -0.534657
0.293447 -0.029244 0.325923
0.229751 0.269469 0.430013
-0.471522 0.438202 0.008960
0.234480 -0.595305 0.044036
0.295492 -0.334170 0.313748
-0.347700 0.244487 -0.526269
0.221416 -0.232077 -0.445987
-0.435580 0.540130 -0.226342
-0.005986 0.740354 0.019954
-0.250195 -0.656670 -0.010410
-0.033156 0.618296 -0.558045
0.410932 -0.044505 -0.349366
0.492440 0.210281 -0.244514
-0.299320 0.569647 -0.481045
-0.058965 -0.739823 -0.352364
0.352419 -0.424383 0.074626
-0.238767 -0.771824 -0.185582
0.233583 -0.593204 0.005662
-0.446819 0.438007 -0.279293
0.360166 0.581425 -0.033608
0.163385 -0.641563 0.386181
0.189360 0.722199 -0.330118
-0.292610 -0.167139 0.402043
0.110425 0.035367 0.430370
0.438225 -0.053452 -0.121134
-0.086591 -0.963055 -0.101446
0.013946 0.401386 0.373708
0.141995 -0.181188 0.498671
0.390654 -0.198602 0.087490
0.341635 0.351001 0.221048
-0.345223 0.178211 0.413973
0.092576 -0.274691 0.488866
-0.298261 -0.114906 -0.479580
-0.399982 -0.406140 -0.033516
-0.493016 0.280339 -0.147048
-0.214997 -0.506251 0.433200
0.424802 0.393240 -0.390363
0.048791 0.573065 -0.589154
0.120612 -0.984787 0.012394
0.395311 -0.164491 0.097774
0.401763 -0.224769 -0.023942
-0.401076 -0.162214 0.090818
0.483451 0.393562 -0.222660
0.408766 -0.043175 0.143468
0.362224 -0.354435 -0.054013
-0.198673 0.697168 0.264810
-0.252218 -0.316084 0.372728
0.325231 0.677762 -0.095867
0.058865 -0.979408 0.128633
0.332942 0.037347 0.312083
-0.272752 -0.513934 -0.103950
0.045208 -0.245413 0.590158
-0.474060 0.466003 -0.016832
-0.417645 0.344442 -0.408141
-0.228754 0.062953 -0.598916
0.254947 0.118609 -0.574688
0.270429 0.554764 0.306147
0.117861 0.194225 -0.636758
-0.166930 0.012120 -0.611191
0.220485 -0.070126 0.410753
0.094478 0.141406 -0.637722
0.509910 0.304360 -0.158653
-0.362992 0.340922 0.177527
0.107958 0.106294 -0.631222
0.318998 0.541987 -0.475710
-0.475800 0.083510 -0.096932
-0.417471 0.516378 -0.312303
-0.110594 0.715551 0.324885
-0.089766 0.464878 0.332733
-0.255368 -0.586973 0.358524
0.311645 0.678975 -0.217927
0.174789 0.546570 0.350061
-0.371221 0.637361 -0.046248
0.223403 -0.867177 -0.274670
0.133437 -0.264449 -0.480727
-0.274289 -0.555709 0.334766
-0.294405 -0.247132 -0.312454
0.120472 -0.951307 0.133768
0.211150 -0.275597 0.386662
-0.247827 -0.613786 -0.112158
0.093698 0.743160 -0.003899
-0.381571 0.168029 -0.485806
0.079143 -0.962011 0.150588
-0.115542 -0.005394 -0.622625
-0.454787 -0.091279 -0.090572
0.460336 0.092174 -0.177356
-0.473826 0.066116 -0.214917
0.509612 0.350105 -0.127363
-0.402267 0.589205 -0.284872
-0.417627 -0.013832 0.114020
-0.094072 -0.578354 0.483143
0.383500 0.303403 0.177200
-0.303396 0.671443 0.121718
0.124764 -0.199719 0.601769
0.160617 -0.978154 0.047948
-0.021181 -0.645134 -0.346854
-0.478949 0.313719 -0.186150
0.020996 -0.262330 -0.506345
-0.162614 -0.650854 0.246516
0.289989 0.271683 0.371120
-0.281175 -0.345801 -0.220736
-0.335811 -0.403709 0.223068
0.276356 -0.487047 0.258463
0.143370 0.743357 -0.260551
0.204844 -0.799078 0.080379
0.045370 -0.093061 0.673042
0.121429 -0.264432 0.464107
-0.261781 0.691584 -0.323253
0.264533 -0.516167 0.275204
0.397426 -0.114554 0.134950
0.253307 0.091711 0.389017
0.177328 -0.762647 -0.310381
-0.251048 -0.695999 -0.008224
-0.164688 -0.224143 -0.512626
0.249632 -0.142411 -0.492968
-0.493517 0.191990 -0.162542
0.212170 0.715118 -0.335339
0.492453 0.348769 0.001458
0.251640 -0.164568 -0.478832
-0.034989 0.532820 -0.616261
0.016348 -0.976429 -0.040282
0.057037 -0.615957 0.473802
-0.042406 -0.805153 -0.374885
-0.291189 0.688900 -0.160575
-0.219577 0.192421 -0.608544
-0.056203 0.098532 0.467999
0.285415 0.167322 0.464631
-0.242919 -0.877350 0.009398
0.280583 -0.572796 0.177657
0.229953 0.259954 0.458704
0.079153 0.323998 -0.647007
-0.045512 -0.967044 -0.090971
0.143187 -0.932041 -0.315718
-0.254087 -0.859152 -0.132132
0.464377 0.002809 -0.165444
-0.326029 0.317676 -0.540422
0.021465 0.714656 0.348967
0.168490 0.264845 0.476996
0.298314 -0.429736 0.232546
-0.077747 -0.611969 0.483471
-0.362210 -0.170565 -0.308784
0.041546 -0.652630 0.454242
0.072255 -0.987193 0.079507
0.157727 -0.648355 0.237286
0.119766 0.744543 -0.040575
-0.291253 0.403318 0.246461
-0.030458 0.059634 0.533185
0.053389 0.204960 -0.651051
-0.239665 -0.148757 -0.514999
0.111741 -0.893992 0.157660
0.310997 -0.500522 0.159618
0.411672 -0.223317 -0.097516
-0.136751 0.736675 -0.216390
0.029243 0.726585 -0.404260
0.218817 -0.666090 0.034628
0.424791 0.525817 -0.160144
-0.208935 0.306771 -0.607899
0.334335 -0.199274 0.324001
-0.005923 0.738641 0.069058
-0.166315 -0.959955 -0.060645
0.151257 -0.379394 0.479383
0.133757 -0.657870 0.299932
0.253235 0.493214 0.266564
0.358111 0.576329 -0.262122
-0.142382 0.677079 0.387050
0.099014 0.303411 -0.643417
-0.408066 0.023658 -0.405561
0.361598 0.185479 -0.489457
-0.231020 0.252350 0.470140
0.380952 0.245559 -0.468359
0.310952 0.620995 -0.375783
-0.386966 0.591324 0.131531
-0.166520 -0.950066 0.109105
0.142012 0.146855 -0.626442
-0.465114 0.383226 -0.248074
0.345139 0.643727 0.037794
-0.157513 0.645955 0.384035
0.450821 0.188596 -0.360588
-0.277942 0.393076 -0.566172
0.119259 0.246211 0.515928
0.201585 0.551839 -0.560034
0.110974 -0.304574 -0.428416
0.031112 -0.519806 0.483739
0.124532 0.743478 -0.005103
-0.328329 0.237299 0.394086
-0.373998 -0.119404 0.249709
0.211736 0.698400 0.304732
-0.230931 0.701651 -0.020435
-0.292088 0.290560 0.358335
0.491731 0.169431 0.071081
0.077518 -0.974150 -0.110712
-0.190069 0.297825 -0.617694
-0.353651 -0.246436 0.242213
-0.371004 -0.411252 0.129355
0.302863 0.238837 0.435099
0.290342 -0.521927 -0.046252
-0.269496 -0.105774 0.415255
0.424247 -0.057146 -0.283393
-0.045051 -0.124501 0.647634
0.244886 -0.907860 -0.029258
-0.389574 -0.187694 -0.252574
0.036115 -0.540922 -0.345861
-0.445598 0.028782 -0.297419
0.354477 0.382998 0.174967
0.063982 -0.984297 0.019999
-0.255068 -0.882672 -0.060315
-0.079182 -0.924390 -0.342880
0.329712 -0.221836 0.324139
-0.219943 -0.820448 -0.246089
0.172934 -0.933568 -0.294171
-0.252875 0.464487 0.241955
-0.028087 -0.568341 -0.342084
-0.139173 0.389256 0.368362
0.312054 0.360211 -0.532960
-0.048830 0.213173 -0.660883
0.514183 0.184673 -0.116567
-0.312946 -0.400294 0.307100
-0.322890 0.293688 0.292557
0.182359 -0.646622 0.254029
-0.387038 0.634223 -0.201906
0.331745 -0.393485 0.165513
0.341472 0.588043 -0.347082
0.407265 0.195548 0.168224
0.502964 0.175042 -0.207557
0.408675 0.215958 0.154078
0.331294 0.285345 -0.530115
0.178222 0.451335 -0.611136
0.326313 -0.215275 -0.234727
-0.494831 0.391291 -0.069610
0.140621 -0.245175 -0.493277
0.060381 -0.093367 0.653336
-0.239984 -0.627836 0.291776
0.002549 0.741718 -0.002737
-0.255658 -0.751923 -0.022421
0.174237 -0.861237 0.115454
-0.238222 -0.600548 -0.160789
0.368424 0.045374 -0.463848
0.367099 0.572588 0.060350
0.249275 -0.790362 -0.134709
-0.002377 -0.383776 -0.374198
0.289641 0.571262 -0.482383
0.129822 0.295718 0.407827
-0.407581 0.496543 0.075298
-0.411780 -0.315098 -0.032110
-0.026152 -0.768433 0.185028
-0.351530 -0.223678 -0.229622
0.122966 -0.020983 -0.607508
0.113128 0.257340 0.495438
-0.471979 0.354979 0.071805
-0.245642 -0.496907 0.420525
0.200328 -0.018818 -0.579252
-0.426223 -0.272862 -0.087959
-0.090606 -0.167615 -0.580204
-0.209224 0.644370 0.357863
0.094833 -0.217797 0.540826
0.302390 0.690444 0.065440
-0.295732 -0.419683 -0.120460
0.187561 0.733772 0.016210
0.092293 0.524950 0.366130
-0.239857 -0.467551 -0.223122
0.362966 0.357688 0.181590
-0.067371 0.541473 0.369000
0.346189 0.123497 -0.504624
0.028235 -0.376467 0.529755
0.244248 0.670618 0.324683
0.321724 -0.163176 0.353296
-0.383654 -0.376708 0.094147
-0.135321 -0.913544 -0.323312
-0.333204 -0.092586 0.328509
0.394640 0.199204 0.363865
-0.385557 0.474209 0.096689
0.111884 -0.123448 -0.572747
-0.205143 -0.308502 0.431179
0.139208 0.337222 -0.633029
0.407301 0.065228 0.181959
-0.444936 -0.129091 -0.270617
-0.276375 -0.017814 -0.550372
-0.460692 -0.216891 -0.189803
-0.475096 0.335087 -0.218730
0.492924 0.407471 -0.165051
-0.171197 0.569534 0.350074
0.413509 -0.174501 -0.063915
0.307421 -0.236510 -0.250298
0.106951 0.077445 0.420878
0.146090 -0.973579 -0.141862
0.226779 -0.935795 0.006218
0.067433 -0.922614 -0.365528
-0.094868 0.068823 0.431797
0.076013 -0.170361 -0.559739
-0.151635 -0.749635 -0.301692
-0.505229 0.184503 -0.094101
-0.220310 0.701497 -0.345550
-0.323637 0.483384 0.150362
0.413847 -0.084137 0.120331
0.436503 0.297882 -0.373995
-0.259380 -0.605724 -0.026493
-0.104591 -0.360217 0.512756
0.167309 0.514190 -0.589210
-0.409258 -0.168942 0.057350
-0.480935 0.272532 -0.221410
0.327761 -0.333148 0.213704
-0.050583 0.400360 -0.641663
0.364299 0.338844 0.194657
0.287653 -0.419397 0.286815
-0.228228 -0.919358 0.042610
0.355291 0.619310 0.058725
0.165004 0.473522 0.302599
-0.027039 0.063481 -0.644555
0.229057 0.064239 -0.582752
-0.021438 0.229133 -0.662052
0.126413 -0.646250 0.412610
-0.412176 -0.043811 0.118443
0.230619 -0.680722 0.002766
0.038637 -0.151981 0.707169
0.416270 0.461009 -0.385515
0.064244 0.489569 0.346721
0.222429 -0.950304 -0.141867
-0.242314 -0.879504 -0.189111
0.378853 -0.188741 0.159603
0.248336 -0.393166 -0.195760
-0.241295 -0.436886 0.414428
0.156367 0.319500 -0.632647
-0.038117 0.069279 0.509866
0.228236 -0.306869 -0.293306
-0.128614 0.726614 -0.032339
0.341655 -0.467279 -0.039822
-0.429061 -0.220759 -0.030477
-0.329479 -0.463616 0.209098
0.310039 0.487160 0.220587
0.091818 -0.075497 0.537278
0.348938 -0.136927 0.322911
0.392611 -0.223121 0.035036
0.296349 -0.256474 0.335411
0.228783 -0.815443 0.033264
0.328425 -0.230583 -0.208514
0.376745 -0.164365 0.199885
0.236163 -0.678317 -0.024000
0.406835 -0.169369 -0.002712
-0.276385 -0.462773 -0.141506
0.353142 0.291508 -0.505675
0.015184 -0.701106 -0.361524
-0.006724 -0.543141 0.489754
0.272984 -0.509671 0.253216
-0.089447 0.043723 0.432312
0.017950 -0.242332 0.691793
0.301891 0.541615 -0.492874
0.155289 0.750955 -0.135845
0.173476 -0.001449 -0.591188
-0.302188 0.582983 0.244105
0.398208 -0.168086 0.054613
-0.303793 0.307363 0.297819
-0.012431 -0.957054 -0.223032
0.235252 -0.748181 -0.195848
-0.221613 -0.128306 -0.538239
0.501222 0.070752 0.038035
-0.451468 0.014455 -0.083183
0.403025 0.464881 -0.010453
0.293657 -0.257344 -0.202641
-0.218565 0.700277 0.102859
-0.328076 -0.329716 0.319705
0.415372 0.114475 -0.405653
-0.426764 -0.062798 0.029408
0.420383 0.119995 0.313203
0.444008 -0.113429 -0.197774
0.281928 -0.547473 0.202224
-0.309700 -0.201093 0.379784
-0.015026 -0.796618 0.185618
0.335602 0.099365 0.352081
-0.142178 -0.861501 0.144980
0.056313 0.511403 0.360864
-0.436481 0.510549 -0.255140
0.098856 0.080892 -0.631216
-0.040535 -0.046081 -0.621178
0.097159 0.473188 0.332442
0.358757 -0.215035 0.252148
-0.463873 0.163085 -0.282288
-0.015813 -0.115490 0.679479
-0.055382 0.744395 -0.231135
0.164104 0.726454 -0.351371
-0.179931 -0.614319 0.424026
-0.114779 0.014456 0.430240
0.253905 -0.237075 -0.401893
-0.347659 -0.356400 0.208427
0.107762 -0.460006 0.466086
-0.478837 0.162255 -0.216921
-0.143798 0.621337 -0.543418
0.152194 -0.111310 0.463608
-0.347435 -0.039248 0.252931
-0.422850 -0.055022 -0.296072
0.180626 -0.595096 0.397299
-0.003818 -0.127621 0.694945
0.261075 -0.549757 -0.040428
0.092753 0.713697 0.382373
0.225073 -0.624442 -0.169746
0.136488 0.697828 -0.458571
-0.348837 -0.206297 0.337216
-0.151892 0.259686 -0.637347
0.008839 -0.969151 -0.116588
0.115217 0.154007 -0.633716
0.358545 -0.296036 -0.133523
0.178844 -0.938536 -0.272217
-0.189162 0.189398 -0.619307
-0.116857 -0.161351 0.565548
-0.169160 0.626945 -0.526689
0.164924 -0.415840 -0.318335
-0.173350 -0.492809 -0.288962
-0.477963 -0.136783 -0.242166
0.309134 -0.093010 0.369467
0.485843 0.436205 -0.114557
0.313970 0.223004 0.447431
0.508007 0.116440 -0.061513
-0.160529 0.402626 -0.621866
0.002095 -0.660242 0.213793
0.164320 -0.971110 -0.162010
0.225928 0.740837 -0.110468
0.412425 -0.108957 0.071925
-0.113136 -0.221919 -0.531457
-0.280327 -0.524067 -0.079172
-0.204731 0.282011 0.414715
0.127011 -0.413420 0.507044
0.360464 0.338294 -0.490049
-0.118151 0.671278 -0.499354
-0.377266 0.626831 -0.008088
-0.151762 -0.224164 0.449092
0.098855 0.640606 0.409437
-0.297488 0.062523 0.332788
-0.147519 -0.631087 0.433806
0.390438 -0.084871 0.236744
0.099505 -0.168729 -0.554037
0.110267 0.224610 0.518417
-0.093570 -0.440847 0.514984
0.053975 -0.122084 -0.588664
-0.251514 -0.857777 -0.014652
-0.162226 -0.209769 0.433123
0.096309 -0.973481 -0.129100
-0.442853 -0.160395 -0.106200
-0.363029 0.008012 0.222507
0.104598 -0.659395 0.178502
0.468626 0.384678 0.020282
0.221129 -0.742219 0.047479
-0.370280 -0.248975 0.164020
0.484421 0.374205 -0.003738
-0.135425 0.199639 0.512598
-0.115401 -0.623472 -0.313459
0.338634 -0.464573 0.101400
0.360276 -0.293881 0.144764
0.178731 0.716152 0.125756
0.152758 -0.915353 0.122928
0.041011 0.546830 0.383472
0.098595 -0.143408 0.641354
0.106227 0.146001 0.481895
-0.418288 -0.238736 -0.225164
0.410102 0.104182 0.299802
-0.474542 -0.162380 -0.239667
-0.104280 0.600579 -0.569758
-0.245664 -0.487282 -0.197444
0.073746 -0.492752 -0.345632
0.351917 0.083268 -0.489799
0.128232 0.577806 -0.578088
0.335043 0.572042 -0.408252
-0.108205 0.678741 0.402158
-0.494736 0.346161 -0.088158
0.329195 -0.526355 -0.002417
0.102503 -0.931137 -0.337543
0.234615 -0.942493 -0.122600
-0.347457 -0.186339 -0.331714
-0.175335 -0.324397 0.463839
-0.257095 -0.777337 -0.033023
0.106201 0.463860 -0.622375
0.130466 0.717868 0.354017
0.487876 0.124925 -0.178389
-0.059419 0.546595 -0.611713
0.313712 -0.478565 0.166626
-0.190486 0.701025 -0.378166
-0.169606 -0.105133 0.475921
-0.340852 -0.076008 -0.459031
-0.403560 0.166651 -0.450669
0.331671 -0.454327 0.131633
0.399565 0.194955 0.303099
-0.302123 -0.143702 -0.462710
-0.088814 0.097776 0.433225
0.493425 0.135581 -0.219761
-0.037472 -0.342817 -0.393890
-0.325661 0.651054 0.211116
0.342659 -0.319494 0.180473
-0.225247 -0.634157 0.203257
-0.025160 -0.076237 0.646132
-0.178087 -0.876115 -0.306515
-0.034713 -0.162953 -0.583614
0.301371 0.164618 -0.548163
-0.063177 0.234102 -0.663321
-0.482667 0.365355 -0.169112
0.182215 0.407853 -0.616604
-0.457269 0.308472 0.100092
-0.169804 -0.957177 -0.088203
-0.119607 -0.677842 0.158427
0.265731 0.141279 -0.570759
-0.057094 0.725401 0.195663
0.242322 -0.008194 -0.552498
-0.424205 0.430577 -0.350755
0.350059 -0.010347 -0.465756
-0.038259 0.742506 -0.168089
0.233128 -0.180981 -0.482449
-0.171137 0.140265 -0.622072
-0.185460 0.423254 0.327689
0.076863 0.043262 0.515173
0.246589 -0.880431 -0.207522
0.334465 -0.338343 0.191974
0.032467 0.551522 -0.601607
0.388372 -0.186261 0.111591
0.212911 0.430132 -0.595826
-0.214017 -0.914591 0.069728
-0.346012 0.068560 -0.516129
-0.017978 -0.973374 -0.044213
-0.288119 0.496877 -0.524291
-0.398401 -0.278022 -0.181055
-0.458833 0.090106 -0.233155
-0.376518 -0.278615 0.137153
-0.010447 0.599614 -0.574467
-0.064493 0.241617 0.483101
-0.173696 -0.634306 0.414721
0.361601 0.603821 0.098987
-0.243698 -0.361732 -0.272047
-0.216247 -0.530979 0.431561
0.363866 -0.207420 0.227903
-0.160565 -0.651285 0.272538
0.205710 0.283376 0.399717
-0.305796 0.116879 -0.560034
0.476294 0.447666 -0.187065
0.499981 0.298143 0.016447
0.394763 0.201084 0.329779
0.142545 0.412750 -0.631379
0.317451 0.591564 0.276856
-0.372338 0.642414 -0.148072
-0.075227 0.378510 -0.639894
0.235349 -0.703172 -0.005822
-0.094614 0.202390 0.506038
-0.319015 -0.511967 0.207232
-0.372635 -0.181875 0.197849
-0.047162 -0.187690 0.673489
-0.398746 -0.064258 0.170036
0.465759 0.440843 -0.024150
0.132936 -0.126009 0.539017
0.067701 -0.809819 -0.377717
-0.217833 -0.841914 0.073012
0.036815 -0.969437 -0.140046
0.219343 -0.715860 -0.234657
-0.272576 0.580188 0.279893
-0.210766 -0.415025 -0.287220
-0.270287 0.386356 0.289762
-0.403765 -0.308914 -0.060820
-0.166483 -0.552393 -0.285621
-0.109794 -0.075180 -0.608083
0.439724 -0.065247 0.103999
0.130161 -0.478348 -0.330066
-0.410056 0.176022 0.281652
0.473088 0.448705 -0.211112
0.385325 -0.139733 0.174364
-0.191616 -0.930478 0.097244
-0.056639 0.429751 0.358022
-0.353729 0.512686 0.132030
0.400109 0.217099 0.177826
0.174418 -0.356588 0.436107
-0.423468 -0.248821 -0.020949
0.153449 -0.863651 -0.349761
0.319101 0.394804 0.217938
0.516074 0.241922 -0.058751
-0.381280 0.214361 -0.488954
-0.484440 0.350445 0.038418
0.179184 -0.978457 -0.041482
